ply
format ascii 1.0
comment exported from virtual worlds 
comment Voxel surface data
element vertex 1857
property float x
property float y
property float z
end_header
-10 -10 0.565678
-9.5 -10 0.546009
-9 -10 0.461044
-8.5 -10 0.322769
-8 -10 0.148417
-7.5 -10 -0.0424462
-7 -10 -0.230762
-6.5 -10 -0.400309
-6 -10 -0.539257
-5.5 -10 -0.640866
-5 -10 -0.703363
-4.5 -10 -0.729215
-4 -10 -0.724018
-3.5 -10 -0.695256
-3 -10 -0.651137
-2.5 -10 -0.599655
-2 -10 -0.547927
-1.5 -10 -0.501821
-1 -10 -0.465817
-0.5 -10 -0.443014
0 -10 -0.435217
0.5 -10 -0.443014
1 -10 -0.465817
1.5 -10 -0.501821
2 -10 -0.547927
2.5 -10 -0.599655
3 -10 -0.651137
3.5 -10 -0.695256
4 -10 -0.724018
4.5 -10 -0.729215
5 -10 -0.703363
5.5 -10 -0.640866
6 -10 -0.539257
6.5 -10 -0.400309
7 -10 -0.230762
7.5 -10 -0.0424462
8 -10 0.148417
8.5 -10 0.322769
9 -10 0.461044
9.5 -10 0.546009
-9.75 -9.56699 0.520184
-9.25 -9.56699 0.405862
-8.75 -9.56699 0.239478
-8.25 -9.56699 0.0420893
-7.75 -9.56699 -0.163391
-7.25 -9.56699 -0.355499
-6.75 -9.56699 -0.51684
-6.25 -9.56699 -0.635742
-5.75 -9.56699 -0.706819
-5.25 -9.56699 -0.730574
-4.75 -9.56699 -0.712285
-4.25 -9.56699 -0.660486
-3.75 -9.56699 -0.585366
-3.25 -9.56699 -0.497347
-2.75 -9.56699 -0.406006
-2.25 -9.56699 -0.319406
-1.75 -9.56699 -0.243828
-1.25 -9.56699 -0.183798
-0.75 -9.56699 -0.142322
-0.25 -9.56699 -0.121177
0.25 -9.56699 -0.121177
0.75 -9.56699 -0.142322
1.25 -9.56699 -0.183798
1.75 -9.56699 -0.243828
2.25 -9.56699 -0.319406
2.75 -9.56699 -0.406006
3.25 -9.56699 -0.497347
3.75 -9.56699 -0.585366
4.25 -9.56699 -0.660486
4.75 -9.56699 -0.712285
5.25 -9.56699 -0.730574
5.75 -9.56699 -0.706819
6.25 -9.56699 -0.635742
6.75 -9.56699 -0.51684
7.25 -9.56699 -0.355499
7.75 -9.56699 -0.163391
8.25 -9.56699 0.0420893
8.75 -9.56699 0.239478
9.25 -9.56699 0.405862
-10 -9.13398 0.489653
-9.5 -9.13398 0.348936
-9 -9.13398 0.158358
-8.5 -9.13398 -0.057124
-8 -9.13398 -0.271254
-7.5 -9.13398 -0.460291
-7 -9.13398 -0.605958
-6.5 -9.13398 -0.697158
-6 -9.13398 -0.730387
-5.5 -9.13398 -0.708979
-5 -9.13398 -0.641525
-4.5 -9.13398 -0.539863
-4 -9.13398 -0.417058
-3.5 -9.13398 -0.28567
-3 -9.13398 -0.156538
-2.5 -9.13398 -0.0381266
-2 -9.13398 0.0635999
-1.5 -9.13398 0.144905
-1 -9.13398 0.203763
-0.5 -9.13398 0.23927
0 -9.13398 0.251125
0.5 -9.13398 0.23927
1 -9.13398 0.203763
1.5 -9.13398 0.144905
2 -9.13398 0.0635999
2.5 -9.13398 -0.0381266
3 -9.13398 -0.156538
3.5 -9.13398 -0.28567
4 -9.13398 -0.417058
4.5 -9.13398 -0.539863
5 -9.13398 -0.641525
5.5 -9.13398 -0.708979
6 -9.13398 -0.730387
6.5 -9.13398 -0.697158
7 -9.13398 -0.605958
7.5 -9.13398 -0.460291
8 -9.13398 -0.271254
8.5 -9.13398 -0.057124
9 -9.13398 0.158358
9.5 -9.13398 0.348936
-9.75 -8.70096 0.294304
-9.25 -8.70096 0.0834203
-8.75 -8.70096 -0.145672
-8.25 -8.70096 -0.363401
-7.75 -8.70096 -0.543889
-7.25 -8.70096 -0.668245
-6.75 -8.70096 -0.726364
-6.25 -8.70096 -0.717146
-5.75 -8.70096 -0.647316
-5.25 -8.70096 -0.529292
-4.75 -8.70096 -0.378595
-4.25 -8.70096 -0.211328
-3.75 -8.70096 -0.0421027
-3.25 -8.70096 0.117337
-2.75 -8.70096 0.258729
-2.25 -8.70096 0.377225
-1.75 -8.70096 0.470817
-1.25 -8.70096 0.539471
-0.75 -8.70096 0.584191
-0.25 -8.70096 0.606169
0.25 -8.70096 0.606169
0.75 -8.70096 0.584191
1.25 -8.70096 0.539471
1.75 -8.70096 0.470817
2.25 -8.70096 0.377225
2.75 -8.70096 0.258729
3.25 -8.70096 0.117337
3.75 -8.70096 -0.0421027
4.25 -8.70096 -0.211328
4.75 -8.70096 -0.378595
5.25 -8.70096 -0.529292
5.75 -8.70096 -0.647316
6.25 -8.70096 -0.717146
6.75 -8.70096 -0.726364
7.25 -8.70096 -0.668245
7.75 -8.70096 -0.543889
8.25 -8.70096 -0.363401
8.75 -8.70096 -0.145672
9.25 -8.70096 0.0834203
-10 -8.26795 0.245171
-9.5 -8.26795 0.0175517
-9 -8.26795 -0.221456
-8.5 -8.26795 -0.439
-8 -8.26795 -0.607161
-7.5 -8.26795 -0.706662
-7 -8.26795 -0.728759
-6.5 -8.26795 -0.675236
-6 -8.26795 -0.556754
-5.5 -8.26795 -0.390067
-5 -8.26795 -0.194771
-4.5 -8.26795 0.00981032
-4 -8.26795 0.207096
-3.5 -8.26795 0.384784
-3 -8.26795 0.535412
-2.5 -8.26795 0.656039
-2 -8.26795 0.747307
-1.5 -8.26795 0.812177
-1 -8.26795 0.854588
-0.5 -8.26795 0.878277
0 -8.26795 0.885862
0.5 -8.26795 0.878277
1 -8.26795 0.854588
1.5 -8.26795 0.812177
2 -8.26795 0.747307
2.5 -8.26795 0.656039
3 -8.26795 0.535412
3.5 -8.26795 0.384784
4 -8.26795 0.207096
4.5 -8.26795 0.00981032
5 -8.26795 -0.194771
5.5 -8.26795 -0.390067
6 -8.26795 -0.556754
6.5 -8.26795 -0.675236
7 -8.26795 -0.728759
7.5 -8.26795 -0.706662
8 -8.26795 -0.607161
8.5 -8.26795 -0.439
9 -8.26795 -0.221456
9.5 -8.26795 0.0175517
-9.75 -7.83494 -0.037347
-9.25 -7.83494 -0.28356
-8.75 -7.83494 -0.49857
-8.25 -7.83494 -0.652463
-7.75 -7.83494 -0.725705
-7.25 -7.83494 -0.71118
-6.75 -7.83494 -0.613966
-6.25 -7.83494 -0.449143
-5.75 -7.83494 -0.238302
-5.25 -7.83494 -0.00550054
-4.75 -7.83494 0.226512
-4.25 -7.83494 0.439229
-3.75 -7.83494 0.62011
-3.25 -7.83494 0.763043
-2.75 -7.83494 0.867717
-2.25 -7.83494 0.938254
-1.75 -7.83494 0.981463
-1.25 -7.83494 1.00509
-0.75 -7.83494 1.01628
-0.25 -7.83494 1.02043
0.25 -7.83494 1.02043
0.75 -7.83494 1.01628
1.25 -7.83494 1.00509
1.75 -7.83494 0.981463
2.25 -7.83494 0.938254
2.75 -7.83494 0.867717
3.25 -7.83494 0.763043
3.75 -7.83494 0.62011
4.25 -7.83494 0.439229
4.75 -7.83494 0.226512
5.25 -7.83494 -0.00550054
5.75 -7.83494 -0.238302
6.25 -7.83494 -0.449143
6.75 -7.83494 -0.613966
7.25 -7.83494 -0.71118
7.75 -7.83494 -0.725705
8.25 -7.83494 -0.652463
8.75 -7.83494 -0.49857
9.25 -7.83494 -0.28356
-10 -7.40192 -0.0801483
-9.5 -7.40192 -0.331896
-9 -7.40192 -0.543505
-8.5 -7.40192 -0.683
-8 -7.40192 -0.730592
-7.5 -7.40192 -0.680919
-7 -7.40192 -0.542624
-6.5 -7.40192 -0.335616
-6 -7.40192 -0.0867606
-5.5 -7.40192 0.175026
-5 -7.40192 0.423345
-4.5 -7.40192 0.637775
-4 -7.40192 0.805804
-3.5 -7.40192 0.92317
-3 -7.40192 0.992839
-2.5 -7.40192 1.0231
-2 -7.40192 1.02527
-1.5 -7.40192 1.01146
-1 -7.40192 0.992741
-0.5 -7.40192 0.97783
0 -7.40192 0.972234
0.5 -7.40192 0.97783
1 -7.40192 0.992741
1.5 -7.40192 1.01146
2 -7.40192 1.02527
2.5 -7.40192 1.0231
3 -7.40192 0.992839
3.5 -7.40192 0.92317
4 -7.40192 0.805804
4.5 -7.40192 0.637775
5 -7.40192 0.423345
5.5 -7.40192 0.175026
6 -7.40192 -0.0867606
6.5 -7.40192 -0.335616
7 -7.40192 -0.542624
7.5 -7.40192 -0.680919
8 -7.40192 -0.730592
8.5 -7.40192 -0.683
9 -7.40192 -0.543505
9.5 -7.40192 -0.331896
-9.75 -6.96891 -0.366866
-9.25 -6.96891 -0.575594
-8.75 -6.96891 -0.702238
-8.25 -6.96891 -0.726577
-7.75 -6.96891 -0.644937
-7.25 -6.96891 -0.469626
-6.75 -6.96891 -0.225649
-6.25 -6.96891 0.0544734
-5.75 -6.96891 0.336597
-5.25 -6.96891 0.590417
-4.75 -6.96891 0.793561
-4.25 -6.96891 0.933771
-3.75 -6.96891 1.00908
-3.25 -6.96891 1.02634
-2.75 -6.96891 0.998578
-2.25 -6.96891 0.942084
-1.75 -6.96891 0.873593
-1.25 -6.96891 0.808147
-0.75 -6.96891 0.757705
-0.25 -6.96891 0.730431
0.25 -6.96891 0.730431
0.75 -6.96891 0.757705
1.25 -6.96891 0.808147
1.75 -6.96891 0.873593
2.25 -6.96891 0.942084
2.75 -6.96891 0.998578
3.25 -6.96891 1.02634
3.75 -6.96891 1.00908
4.25 -6.96891 0.933771
4.75 -6.96891 0.793561
5.25 -6.96891 0.590417
5.75 -6.96891 0.336597
6.25 -6.96891 0.0544734
6.75 -6.96891 -0.225649
7.25 -6.96891 -0.469626
7.75 -6.96891 -0.644937
8.25 -6.96891 -0.726577
8.75 -6.96891 -0.702238
9.25 -6.96891 -0.575594
-10 -6.5359 -0.389043
-9.5 -6.5359 -0.596618
-9 -6.5359 -0.713421
-8.5 -6.5359 -0.718424
-8 -6.5359 -0.609332
-7.5 -6.5359 -0.402002
-7 -6.5359 -0.126625
-6.5 -6.5359 0.178348
-6 -6.5359 0.47319
-5.5 -6.5359 0.723402
-5 -6.5359 0.904563
-4.5 -6.5359 1.00484
-4 -6.5359 1.02498
-3.5 -6.5359 0.976284
-3 -6.5359 0.877123
-2.5 -6.5359 0.749112
-2 -6.5359 0.613636
-1.5 -6.5359 0.489319
-1 -6.5359 0.390662
-0.5 -6.5359 0.327658
0 -6.5359 0.306041
0.5 -6.5359 0.327658
1 -6.5359 0.390662
1.5 -6.5359 0.489319
2 -6.5359 0.613636
2.5 -6.5359 0.749112
3 -6.5359 0.877123
3.5 -6.5359 0.976284
4 -6.5359 1.02498
4.5 -6.5359 1.00484
5 -6.5359 0.904563
5.5 -6.5359 0.723402
6 -6.5359 0.47319
6.5 -6.5359 0.178348
7 -6.5359 -0.126625
7.5 -6.5359 -0.402002
8 -6.5359 -0.609332
8.5 -6.5359 -0.718424
9 -6.5359 -0.713421
9.5 -6.5359 -0.596618
-9.75 -6.10289 -0.608033
-9.25 -6.10289 -0.719214
-8.75 -6.10289 -0.710043
-8.25 -6.10289 -0.579036
-7.75 -6.10289 -0.345205
-7.25 -6.10289 -0.0438055
-6.75 -6.10289 0.280636
-6.25 -6.10289 0.582489
-5.75 -6.10289 0.822718
-5.25 -6.10289 0.974656
-4.75 -6.10289 1.02696
-4.25 -6.10289 0.983506
-3.75 -6.10289 0.860632
-3.25 -6.10289 0.682705
-2.75 -6.10289 0.477123
-2.25 -6.10289 0.26991
-1.75 -6.10289 0.082664
-1.25 -6.10289 -0.0688021
-0.75 -6.10289 -0.174322
-0.25 -6.10289 -0.228273
0.25 -6.10289 -0.228273
0.75 -6.10289 -0.174322
1.25 -6.10289 -0.0688021
1.75 -6.10289 0.082664
2.25 -6.10289 0.26991
2.75 -6.10289 0.477123
3.25 -6.10289 0.682705
3.75 -6.10289 0.860632
4.25 -6.10289 0.983506
4.75 -6.10289 1.02696
5.25 -6.10289 0.974656
5.75 -6.10289 0.822718
6.25 -6.10289 0.582489
6.75 -6.10289 0.280636
7.25 -6.10289 -0.0438055
7.75 -6.10289 -0.345205
8.25 -6.10289 -0.579036
8.75 -6.10289 -0.710043
9.25 -6.10289 -0.719214
-10 -5.66987 -0.61074
-9.5 -5.66987 -0.721449
-9 -5.66987 -0.704273
-8.5 -5.66987 -0.557687
-8 -5.66987 -0.303155
-7.5 -5.66987 0.0193869
-7 -5.66987 0.359357
-6.5 -5.66987 0.664944
-6 -5.66987 0.892153
-5.5 -5.66987 1.01172
-5 -5.66987 1.01273
-4.5 -5.66987 0.902448
-4 -5.66987 0.702914
-3.5 -5.66987 0.445291
-3 -5.66987 0.163457
-2.5 -5.66987 -0.111686
-2 -5.66987 -0.356082
-1.5 -5.66987 -0.554021
-1 -5.66987 -0.69741
-0.5 -5.66987 -0.783499
0 -5.66987 -0.812123
0.5 -5.66987 -0.783499
1 -5.66987 -0.69741
1.5 -5.66987 -0.554021
2 -5.66987 -0.356082
2.5 -5.66987 -0.111686
3 -5.66987 0.163457
3.5 -5.66987 0.445291
4 -5.66987 0.702914
4.5 -5.66987 0.902448
5 -5.66987 1.01273
5.5 -5.66987 1.01172
6 -5.66987 0.892153
6.5 -5.66987 0.664944
7 -5.66987 0.359357
7.5 -5.66987 0.0193869
8 -5.66987 -0.303155
8.5 -5.66987 -0.557687
9 -5.66987 -0.704273
9.5 -5.66987 -0.721449
-9.75 -5.23686 -0.720981
-9.25 -5.23686 -0.702762
-8.75 -5.23686 -0.547608
-8.25 -5.23686 -0.278399
-7.75 -5.23686 0.0609472
-7.25 -5.23686 0.41403
-6.75 -5.23686 0.722637
-6.25 -5.23686 0.937301
-5.75 -5.23686 1.02561
-5.25 -5.23686 0.976708
-4.75 -5.23686 0.801365
-4.25 -5.23686 0.527908
-3.75 -5.23686 0.195267
-3.25 -5.23686 -0.155139
-2.75 -5.23686 -0.486796
-2.25 -5.23686 -0.773213
-1.75 -5.23686 -0.999907
-1.25 -5.23686 -1.16321
-0.75 -5.23686 -1.26664
-0.25 -5.23686 -1.31622
0.25 -5.23686 -1.31622
0.75 -5.23686 -1.26664
1.25 -5.23686 -1.16321
1.75 -5.23686 -0.999907
2.25 -5.23686 -0.773213
2.75 -5.23686 -0.486796
3.25 -5.23686 -0.155139
3.75 -5.23686 0.195267
4.25 -5.23686 0.527908
4.75 -5.23686 0.801365
5.25 -5.23686 0.976708
5.75 -5.23686 1.02561
6.25 -5.23686 0.937301
6.75 -5.23686 0.722637
7.25 -5.23686 0.41403
7.75 -5.23686 0.0609472
8.25 -5.23686 -0.278399
8.75 -5.23686 -0.547608
9.25 -5.23686 -0.702762
-10 -4.80385 -0.71762
-9.5 -4.80385 -0.705913
-9 -4.80385 -0.549837
-8.5 -4.80385 -0.272303
-8 -4.80385 0.07985
-7.5 -4.80385 0.444909
-7 -4.80385 0.758158
-6.5 -4.80385 0.964058
-6 -4.80385 1.02621
-5.5 -4.80385 0.933118
-5 -4.80385 0.698772
-4.5 -4.80385 0.358164
-4 -4.80385 -0.0409833
-3.5 -4.80385 -0.448278
-3 -4.80385 -0.820185
-2.5 -4.80385 -1.12696
-2 -4.80385 -1.35567
-1.5 -4.80385 -1.50884
-1 -4.80385 -1.59966
-0.5 -4.80385 -1.64498
0 -4.80385 -1.65837
0.5 -4.80385 -1.64498
1 -4.80385 -1.59966
1.5 -4.80385 -1.50884
2 -4.80385 -1.35567
2.5 -4.80385 -1.12696
3 -4.80385 -0.820185
3.5 -4.80385 -0.448278
4 -4.80385 -0.0409833
4.5 -4.80385 0.358164
5 -4.80385 0.698772
5.5 -4.80385 0.933118
6 -4.80385 1.02621
6.5 -4.80385 0.964058
7 -4.80385 0.758158
7.5 -4.80385 0.444909
8 -4.80385 0.07985
8.5 -4.80385 -0.272303
9 -4.80385 -0.549837
9.5 -4.80385 -0.705913
-9.75 -4.37084 -0.712874
-9.25 -4.37084 -0.564147
-8.75 -4.37084 -0.285187
-8.25 -4.37084 0.0757066
-7.75 -4.37084 0.452371
-7.25 -4.37084 0.77368
-6.75 -4.37084 0.977381
-6.25 -4.37084 1.02197
-5.75 -4.37084 0.894124
-5.25 -4.37084 0.610227
-4.75 -4.37084 0.211861
-4.25 -4.37084 -0.243621
-3.75 -4.37084 -0.6952
-3.25 -4.37084 -1.09025
-2.75 -4.37084 -1.39389
-2.25 -4.37084 -1.59375
-1.75 -4.37084 -1.69917
-1.25 -4.37084 -1.73548
-0.75 -4.37084 -1.73485
-0.25 -4.37084 -1.7261
0.25 -4.37084 -1.7261
0.75 -4.37084 -1.73485
1.25 -4.37084 -1.73548
1.75 -4.37084 -1.69917
2.25 -4.37084 -1.59375
2.75 -4.37084 -1.39389
3.25 -4.37084 -1.09025
3.75 -4.37084 -0.6952
4.25 -4.37084 -0.243621
4.75 -4.37084 0.211861
5.25 -4.37084 0.610227
5.75 -4.37084 0.894124
6.25 -4.37084 1.02197
6.75 -4.37084 0.977381
7.25 -4.37084 0.77368
7.75 -4.37084 0.452371
8.25 -4.37084 0.0757066
8.75 -4.37084 -0.285187
9.25 -4.37084 -0.564147
-10 -3.93782 -0.72156
-9.5 -3.93782 -0.589044
-9 -3.93782 -0.316367
-8.5 -3.93782 0.0485975
-8 -3.93782 0.436535
-7.5 -3.93782 0.770311
-7 -3.93782 0.980398
-6.5 -3.93782 1.01883
-6 -3.93782 0.868734
-5.5 -3.93782 0.547355
-5 -3.93782 0.102057
-4.5 -3.93782 -0.399858
-4 -3.93782 -0.885199
-3.5 -3.93782 -1.28971
-3 -3.93782 -1.57047
-2.5 -3.93782 -1.71315
-2 -3.93782 -1.73269
-1.5 -3.93782 -1.66741
-1 -3.93782 -1.56806
-0.5 -3.93782 -1.48429
0 -3.93782 -1.45202
0.5 -3.93782 -1.48429
1 -3.93782 -1.56806
1.5 -3.93782 -1.66741
2 -3.93782 -1.73269
2.5 -3.93782 -1.71315
3 -3.93782 -1.57047
3.5 -3.93782 -1.28971
4 -3.93782 -0.885199
4.5 -3.93782 -0.399858
5 -3.93782 0.102057
5.5 -3.93782 0.547355
6 -3.93782 0.868734
6.5 -3.93782 1.01883
7 -3.93782 0.980398
7.5 -3.93782 0.770311
8 -3.93782 0.436535
8.5 -3.93782 0.0485975
9 -3.93782 -0.316367
9.5 -3.93782 -0.589044
-9.75 -3.50481 -0.621732
-9.25 -3.50481 -0.36407
-8.75 -3.50481 -0.000889234
-8.25 -3.50481 0.397162
-7.75 -3.50481 0.747803
-7.25 -3.50481 0.973901
-6.75 -3.50481 1.01959
-6.25 -3.50481 0.862217
-5.75 -3.50481 0.517568
-5.25 -3.50481 0.036999
-4.75 -3.50481 -0.502832
-4.25 -3.50481 -1.01558
-3.75 -3.50481 -1.42283
-3.25 -3.50481 -1.66992
-2.75 -3.50481 -1.73657
-2.25 -3.50481 -1.64004
-1.75 -3.50481 -1.43014
-1.25 -3.50481 -1.17723
-0.75 -3.50481 -0.955893
-0.25 -3.50481 -0.827825
0.25 -3.50481 -0.827825
0.75 -3.50481 -0.955893
1.25 -3.50481 -1.17723
1.75 -3.50481 -1.43014
2.25 -3.50481 -1.64004
2.75 -3.50481 -1.73657
3.25 -3.50481 -1.66992
3.75 -3.50481 -1.42283
4.25 -3.50481 -1.01558
4.75 -3.50481 -0.502832
5.25 -3.50481 0.036999
5.75 -3.50481 0.517568
6.25 -3.50481 0.862217
6.75 -3.50481 1.01959
7.25 -3.50481 0.973901
7.75 -3.50481 0.747803
8.25 -3.50481 0.397162
8.75 -3.50481 -0.000889234
9.25 -3.50481 -0.36407
-10 -3.0718 -0.658106
-9.5 -3.0718 -0.425282
-9 -3.0718 -0.0714213
-8.5 -3.0718 0.333862
-8 -3.0718 0.704611
-7.5 -3.0718 0.956225
-7 -3.0718 1.02361
-6.5 -3.0718 0.875868
-6 -3.0718 0.524161
-5.5 -3.0718 0.020942
-5 -3.0718 -0.549624
-4.5 -3.0718 -1.08815
-4 -3.0718 -1.50012
-3.5 -3.0718 -1.71526
-3 -3.0718 -1.70226
-2.5 -3.0718 -1.47542
-2 -3.0718 -1.09185
-1.5 -3.0718 -0.639708
-1 -3.0718 -0.219807
-0.5 -3.0718 0.0754827
0 -3.0718 0.181624
0.5 -3.0718 0.0754827
1 -3.0718 -0.219807
1.5 -3.0718 -0.639708
2 -3.0718 -1.09185
2.5 -3.0718 -1.47542
3 -3.0718 -1.70226
3.5 -3.0718 -1.71526
4 -3.0718 -1.50012
4.5 -3.0718 -1.08815
5 -3.0718 -0.549624
5.5 -3.0718 0.020942
6 -3.0718 0.524161
6.5 -3.0718 0.875868
7 -3.0718 1.02361
7.5 -3.0718 0.956225
8 -3.0718 0.704611
8.5 -3.0718 0.333862
9 -3.0718 -0.0714213
9.5 -3.0718 -0.425282
-9.75 -2.63878 -0.495546
-9.25 -2.63878 -0.16054
-8.75 -2.63878 0.246564
-8.25 -2.63878 0.638323
-7.75 -2.63878 0.923508
-7.25 -2.63878 1.02695
-6.75 -2.63878 0.90695
-6.25 -2.63878 0.566415
-5.75 -2.63878 0.0548617
-5.25 -2.63878 -0.539372
-4.75 -2.63878 -1.10554
-4.25 -2.63878 -1.53232
-3.75 -2.63878 -1.73062
-3.25 -2.63878 -1.65262
-2.75 -2.63878 -1.30293
-2.25 -2.63878 -0.739277
-1.75 -2.63878 -0.0625083
-1.25 -2.63878 0.602501
-0.75 -2.63878 1.13104
-0.25 -2.63878 1.42308
0.25 -2.63878 1.42308
0.75 -2.63878 1.13104
1.25 -2.63878 0.602501
1.75 -2.63878 -0.0625083
2.25 -2.63878 -0.739277
2.75 -2.63878 -1.30293
3.25 -2.63878 -1.65262
3.75 -2.63878 -1.73062
4.25 -2.63878 -1.53232
4.75 -2.63878 -1.10554
5.25 -2.63878 -0.539372
5.75 -2.63878 0.0548617
6.25 -2.63878 0.566415
6.75 -2.63878 0.90695
7.25 -2.63878 1.02695
7.75 -2.63878 0.923508
8.25 -2.63878 0.638323
8.75 -2.63878 0.246564
9.25 -2.63878 -0.16054
-10 -2.20577 -0.568838
-9.5 -2.20577 -0.264204
-9 -2.20577 0.136197
-8.5 -2.20577 0.54641
-8 -2.20577 0.870333
-7.5 -2.20577 1.02265
-7 -2.20577 0.948812
-6.5 -2.20577 0.639576
-6 -2.20577 0.136662
-5.5 -2.20577 -0.472239
-5 -2.20577 -1.06857
-4.5 -2.20577 -1.52543
-4 -2.20577 -1.73311
-3.5 -2.20577 -1.62245
-3 -2.20577 -1.18106
-2.5 -2.20577 -0.458799
-2 -2.20577 0.438948
-1.5 -2.20577 1.36924
-1 -2.20577 2.17743
-0.5 -2.20577 2.72588
0 -2.20577 2.91993
0.5 -2.20577 2.72588
1 -2.20577 2.17743
1.5 -2.20577 1.36924
2 -2.20577 0.438948
2.5 -2.20577 -0.458799
3 -2.20577 -1.18106
3.5 -2.20577 -1.62245
4 -2.20577 -1.73311
4.5 -2.20577 -1.52543
5 -2.20577 -1.06857
5.5 -2.20577 -0.472239
6 -2.20577 0.136662
6.5 -2.20577 0.639576
7 -2.20577 0.948812
7.5 -2.20577 1.02265
8 -2.20577 0.870333
8.5 -2.20577 0.54641
9 -2.20577 0.136197
9.5 -2.20577 -0.264204
-9.75 -1.77276 -0.376412
-9.25 -1.77276 0.00546737
-8.75 -1.77276 0.427245
-8.25 -1.77276 0.790755
-7.75 -1.77276 1.00162
-7.25 -1.77276 0.991223
-6.75 -1.77276 0.734717
-6.25 -1.77276 0.260753
-5.75 -1.77276 -0.349648
-5.25 -1.77276 -0.975574
-4.75 -1.77276 -1.47806
-4.25 -1.77276 -1.72725
-3.75 -1.77276 -1.62948
-3.25 -1.77276 -1.14871
-2.75 -1.77276 -0.317652
-2.25 -1.77276 0.764099
-1.75 -1.77276 1.94505
-1.25 -1.77276 3.04736
-0.75 -1.77276 3.89827
-0.25 -1.77276 4.36131
0.25 -1.77276 4.36131
0.75 -1.77276 3.89827
1.25 -1.77276 3.04736
1.75 -1.77276 1.94505
2.25 -1.77276 0.764099
2.75 -1.77276 -0.317652
3.25 -1.77276 -1.14871
3.75 -1.77276 -1.62948
4.25 -1.77276 -1.72725
4.75 -1.77276 -1.47806
5.25 -1.77276 -0.975574
5.75 -1.77276 -0.349648
6.25 -1.77276 0.260753
6.75 -1.77276 0.734717
7.25 -1.77276 0.991223
7.75 -1.77276 1.00162
8.25 -1.77276 0.790755
8.75 -1.77276 0.427245
9.25 -1.77276 0.00546737
-10 -1.33975 -0.489006
-9.5 -1.33975 -0.140437
-9 -1.33975 0.281242
-8.5 -1.33975 0.679646
-8 -1.33975 0.953767
-7.5 -1.33975 1.02112
-7 -1.33975 0.838742
-6.5 -1.33975 0.417243
-6 -1.33975 -0.175692
-5.5 -1.33975 -0.823846
-5 -1.33975 -1.38208
-4.5 -1.33975 -1.70362
-4 -1.33975 -1.66973
-3.5 -1.33975 -1.21598
-3 -1.33975 -0.349341
-2.5 -1.33975 0.847617
-2 -1.33975 2.22689
-1.5 -1.33975 3.59817
-1 -1.33975 4.76087
-0.5 -1.33975 5.53902
0 -1.33975 5.8126
0.5 -1.33975 5.53902
1 -1.33975 4.76087
1.5 -1.33975 3.59817
2 -1.33975 2.22689
2.5 -1.33975 0.847617
3 -1.33975 -0.349341
3.5 -1.33975 -1.21598
4 -1.33975 -1.66973
4.5 -1.33975 -1.70362
5 -1.33975 -1.38208
5.5 -1.33975 -0.823846
6 -1.33975 -0.175692
6.5 -1.33975 0.417243
7 -1.33975 0.838742
7.5 -1.33975 1.02112
8 -1.33975 0.953767
8.5 -1.33975 0.679646
9 -1.33975 0.281242
9.5 -1.33975 -0.140437
-9.75 -0.906734 -0.293372
-9.25 -0.906734 0.111959
-8.75 -0.906734 0.53425
-8.25 -0.906734 0.86973
-7.75 -0.906734 1.02393
-7.25 -0.906734 0.934872
-6.75 -0.906734 0.591224
-6.25 -0.906734 0.0408391
-5.75 -0.906734 -0.612751
-5.25 -0.906734 -1.22616
-4.75 -0.906734 -1.64176
-4.25 -0.906734 -1.7185
-3.75 -0.906734 -1.36178
-3.25 -0.906734 -0.546358
-2.75 -0.906734 0.672715
-2.25 -0.906734 2.16401
-1.75 -0.906734 3.73828
-1.25 -0.906734 5.17873
-0.75 -0.906734 6.27746
-0.25 -0.906734 6.87153
0.25 -0.906734 6.87153
0.75 -0.906734 6.27746
1.25 -0.906734 5.17873
1.75 -0.906734 3.73828
2.25 -0.906734 2.16401
2.75 -0.906734 0.672715
3.25 -0.906734 -0.546358
3.75 -0.906734 -1.36178
4.25 -0.906734 -1.7185
4.75 -0.906734 -1.64176
5.25 -0.906734 -1.22616
5.75 -0.906734 -0.612751
6.25 -0.906734 0.0408391
6.75 -0.906734 0.591224
7.25 -0.906734 0.934872
7.75 -0.906734 1.02393
8.25 -0.906734 0.86973
8.75 -0.906734 0.53425
9.25 -0.906734 0.111959
-10 -0.473721 -0.442221
-9.5 -0.473721 -0.0731011
-9 -0.473721 0.355717
-8.5 -0.473721 0.742826
-8 -0.473721 0.985496
-7.5 -0.473721 1.00395
-7 -0.473721 0.762795
-6.5 -0.473721 0.284688
-6 -0.473721 -0.347505
-5.5 -0.473721 -1.00133
-5 -0.473721 -1.51694
-4.5 -0.473721 -1.73701
-4 -0.473721 -1.5388
-3.5 -0.473721 -0.861821
-3 -0.473721 0.274549
-2.5 -0.473721 1.76775
-2 -0.473721 3.44426
-1.5 -0.473721 5.08573
-1 -0.473721 6.46453
-0.5 -0.473721 7.38229
0 -0.473721 7.70412
0.5 -0.473721 7.38229
1 -0.473721 6.46453
1.5 -0.473721 5.08573
2 -0.473721 3.44426
2.5 -0.473721 1.76775
3 -0.473721 0.274549
3.5 -0.473721 -0.861821
4 -0.473721 -1.5388
4.5 -0.473721 -1.73701
5 -0.473721 -1.51694
5.5 -0.473721 -1.00133
6 -0.473721 -0.347505
6.5 -0.473721 0.284688
7 -0.473721 0.762795
7.5 -0.473721 1.00395
8 -0.473721 0.985496
8.5 -0.473721 0.742826
9 -0.473721 0.355717
9.5 -0.473721 -0.0731011
-9.75 -0.0407076 -0.262233
-9.25 -0.0407076 0.150313
-8.75 -0.0407076 0.571103
-8.25 -0.0407076 0.894598
-7.75 -0.0407076 1.02668
-7.25 -0.0407076 0.908284
-6.75 -0.0407076 0.533505
-6.25 -0.0407076 -0.0422999
-5.75 -0.0407076 -0.706981
-5.25 -0.0407076 -1.30869
-4.75 -0.0407076 -1.68295
-4.25 -0.0407076 -1.68477
-3.75 -0.0407076 -1.21965
-3.25 -0.0407076 -0.266928
-2.75 -0.0407076 1.10936
-2.25 -0.0407076 2.76521
-1.75 -0.0407076 4.49662
-1.25 -0.0407076 6.07162
-0.75 -0.0407076 7.26872
-0.25 -0.0407076 7.91473
0.25 -0.0407076 7.91473
0.75 -0.0407076 7.26872
1.25 -0.0407076 6.07162
1.75 -0.0407076 4.49662
2.25 -0.0407076 2.76521
2.75 -0.0407076 1.10936
3.25 -0.0407076 -0.266928
3.75 -0.0407076 -1.21965
4.25 -0.0407076 -1.68477
4.75 -0.0407076 -1.68295
5.25 -0.0407076 -1.30869
5.75 -0.0407076 -0.706981
6.25 -0.0407076 -0.0422999
6.75 -0.0407076 0.533505
7.25 -0.0407076 0.908284
7.75 -0.0407076 1.02668
8.25 -0.0407076 0.894598
8.75 -0.0407076 0.571103
9.25 -0.0407076 0.150313
-10 0.392304 -0.440029
-9.5 0.392304 -0.070022
-9 0.392304 0.359052
-8.5 0.392304 0.745567
-8 0.392304 0.986728
-7.5 0.392304 1.0029
-7 0.392304 0.759069
-6.5 0.392304 0.278454
-6 0.392304 -0.355363
-5.5 0.392304 -1.00917
-5 0.392304 -1.52244
-4.5 0.392304 -1.73738
-4 0.392304 -1.53107
-3.5 0.392304 -0.843226
-3 0.392304 0.306168
-2.5 0.392304 1.8136
-2 0.392304 3.50434
-1.5 0.392304 5.15872
-1 0.392304 6.54783
-0.5 0.392304 7.47223
0 0.392304 7.79637
0.5 0.392304 7.47223
1 0.392304 6.54783
1.5 0.392304 5.15872
2 0.392304 3.50434
2.5 0.392304 1.8136
3 0.392304 0.306168
3.5 0.392304 -0.843226
4 0.392304 -1.53107
4.5 0.392304 -1.73738
5 0.392304 -1.52244
5.5 0.392304 -1.00917
6 0.392304 -0.355363
6.5 0.392304 0.278454
7 0.392304 0.759069
7.5 0.392304 1.0029
8 0.392304 0.986728
8.5 0.392304 0.745567
9 0.392304 0.359052
9.5 0.392304 -0.070022
-9.75 0.825317 -0.288084
-9.25 0.825317 0.11853
-8.75 0.825317 0.540627
-8.25 0.825317 0.874126
-7.75 0.825317 1.0246
-7.25 0.825317 0.930555
-6.75 0.825317 0.581561
-6.25 0.825317 0.0267364
-5.75 0.825317 -0.628932
-5.25 0.825317 -1.24062
-4.75 0.825317 -1.64954
-4.25 0.825317 -1.71396
-3.75 0.825317 -1.33926
-3.25 0.825317 -0.50099
-2.75 0.825317 0.744318
-2.25 0.825317 2.26312
-1.75 0.825317 3.8637
-1.25 0.825317 5.32669
-0.75 0.825317 6.44191
-0.25 0.825317 7.04469
0.25 0.825317 7.04469
0.75 0.825317 6.44191
1.25 0.825317 5.32669
1.75 0.825317 3.8637
2.25 0.825317 2.26312
2.75 0.825317 0.744318
3.25 0.825317 -0.50099
3.75 0.825317 -1.33926
4.25 0.825317 -1.71396
4.75 0.825317 -1.64954
5.25 0.825317 -1.24062
5.75 0.825317 -0.628932
6.25 0.825317 0.0267364
6.75 0.825317 0.581561
7.25 0.825317 0.930555
7.75 0.825317 1.0246
8.25 0.825317 0.874126
8.75 0.825317 0.540627
9.25 0.825317 0.11853
-10 1.25833 -0.482936
-9.5 1.25833 -0.131514
-9 1.25833 0.291284
-8.5 1.25833 0.68838
-8 1.25833 0.958504
-7.5 1.25833 1.01948
-7 1.25833 0.829297
-6.5 1.25833 0.400108
-6 1.25833 -0.198434
-5.5 1.25833 -0.847993
-5 1.25833 -1.40149
-4.5 1.25833 -1.71075
-4 1.25833 -1.65647
-3.5 1.25833 -1.17468
-3 1.25833 -0.273916
-2.5 1.25833 0.960689
-2 1.25833 2.37785
-1.5 1.25833 3.78365
-1 1.25833 4.97399
-0.5 1.25833 5.77003
0 1.25833 6.04978
0.5 1.25833 5.77003
1 1.25833 4.97399
1.5 1.25833 3.78365
2 1.25833 2.37785
2.5 1.25833 0.960689
3 1.25833 -0.273916
3.5 1.25833 -1.17468
4 1.25833 -1.65647
4.5 1.25833 -1.71075
5 1.25833 -1.40149
5.5 1.25833 -0.847993
6 1.25833 -0.198434
6.5 1.25833 0.400108
7 1.25833 0.829297
7.5 1.25833 1.01948
8 1.25833 0.958504
8.5 1.25833 0.68838
9 1.25833 0.291284
9.5 1.25833 -0.131514
-9.75 1.69134 -0.366731
-9.25 1.69134 0.0182225
-8.75 1.69134 0.440423
-8.25 1.69134 0.80098
-7.75 1.69134 1.00542
-7.25 1.69134 0.985828
-6.75 1.69134 0.718847
-6.25 1.69134 0.235314
-5.75 1.69134 -0.381158
-5.25 1.69134 -1.00704
-4.75 1.69134 -1.50115
-4.25 1.69134 -1.73227
-3.75 1.69134 -1.60654
-3.25 1.69134 -1.08907
-2.75 1.69134 -0.215051
-2.25 1.69134 0.91232
-1.75 1.69134 2.13727
-1.25 1.69134 3.27751
-0.75 1.69134 4.15627
-0.25 1.69134 4.63405
0.25 1.69134 4.63405
0.75 1.69134 4.15627
1.25 1.69134 3.27751
1.75 1.69134 2.13727
2.25 1.69134 0.91232
2.75 1.69134 -0.215051
3.25 1.69134 -1.08907
3.75 1.69134 -1.60654
4.25 1.69134 -1.73227
4.75 1.69134 -1.50115
5.25 1.69134 -1.00704
5.75 1.69134 -0.381158
6.25 1.69134 0.235314
6.75 1.69134 0.718847
7.25 1.69134 0.985828
7.75 1.69134 1.00542
8.25 1.69134 0.80098
8.75 1.69134 0.440423
9.25 1.69134 0.0182225
-10 2.12436 -0.560472
-9.5 2.12436 -0.250578
-9 2.12436 0.15272
-8.5 2.12436 0.562234
-8 2.12436 0.881211
-7.5 2.12436 1.02451
-7 2.12436 0.938707
-6.5 2.12436 0.61661
-6 2.12436 0.102683
-5.5 2.12436 -0.512317
-5 2.12436 -1.10693
-4.5 2.12436 -1.55201
-4 2.12436 -1.73677
-3.5 2.12436 -1.5924
-3 2.12436 -1.10843
-2.5 2.12436 -0.338082
-2 2.12436 0.608815
-1.5 2.12436 1.58436
-1 2.12436 2.42904
-0.5 2.12436 3.00119
0 2.12436 3.20345
0.5 2.12436 3.00119
1 2.12436 2.42904
1.5 2.12436 1.58436
2 2.12436 0.608815
2.5 2.12436 -0.338082
3 2.12436 -1.10843
3.5 2.12436 -1.5924
4 2.12436 -1.73677
4.5 2.12436 -1.55201
5 2.12436 -1.10693
5.5 2.12436 -0.512317
6 2.12436 0.102683
6.5 2.12436 0.61661
7 2.12436 0.938707
7.5 2.12436 1.02451
8 2.12436 0.881211
8.5 2.12436 0.562234
9 2.12436 0.15272
9.5 2.12436 -0.250578
-9.75 2.55737 -0.48349
-9.25 2.55737 -0.142863
-8.75 2.55737 0.266636
-8.25 2.55737 0.656308
-7.75 2.55737 0.934416
-7.25 2.55737 1.02627
-6.75 2.55737 0.891762
-6.25 2.55737 0.536292
-5.75 2.55737 0.0125552
-5.25 2.55737 -0.587764
-4.75 2.55737 -1.15095
-4.25 2.55737 -1.56364
-3.75 2.55737 -1.73607
-3.25 2.55737 -1.62142
-2.75 2.55737 -1.22692
-2.25 2.55737 -0.614378
-1.75 2.55737 0.110412
-1.25 2.55737 0.817327
-0.75 2.55737 1.37688
-0.25 2.55737 1.6854
0.25 2.55737 1.6854
0.75 2.55737 1.37688
1.25 2.55737 0.817327
1.75 2.55737 0.110412
2.25 2.55737 -0.614378
2.75 2.55737 -1.22692
3.25 2.55737 -1.62142
3.75 2.55737 -1.73607
4.25 2.55737 -1.56364
4.75 2.55737 -1.15095
5.25 2.55737 -0.587764
5.75 2.55737 0.0125552
6.25 2.55737 0.536292
6.75 2.55737 0.891762
7.25 2.55737 1.02627
7.75 2.55737 0.934416
8.25 2.55737 0.656308
8.75 2.55737 0.266636
9.25 2.55737 -0.142863
-10 2.99038 -0.650192
-9.5 2.99038 -0.409363
-9 2.99038 -0.0497551
-8.5 2.99038 0.357232
-8 2.99038 0.724419
-7.5 2.99038 0.966889
-7 2.99038 1.02035
-6.5 2.99038 0.855833
-6 2.99038 0.487381
-5.5 2.99038 -0.0291379
-5 2.99038 -0.606132
-4.5 2.99038 -1.14138
-4 2.99038 -1.53864
-3.5 2.99038 -1.72751
-3 2.99038 -1.67822
-2.5 2.99038 -1.40825
-2 2.99038 -0.979162
-1.5 2.99038 -0.484229
-1 2.99038 -0.0293313
-0.5 2.99038 0.288873
0 2.99038 0.402988
0.5 2.99038 0.288873
1 2.99038 -0.0293313
1.5 2.99038 -0.484229
2 2.99038 -0.979162
2.5 2.99038 -1.40825
3 2.99038 -1.67822
3.5 2.99038 -1.72751
4 2.99038 -1.53864
4.5 2.99038 -1.14138
5 2.99038 -0.606132
5.5 2.99038 -0.0291379
6 2.99038 0.487381
6.5 2.99038 0.855833
7 2.99038 1.02035
7.5 2.99038 0.966889
8 2.99038 0.724419
8.5 2.99038 0.357232
9 2.99038 -0.0497551
9.5 2.99038 -0.409363
-9.75 3.42339 -0.610629
-9.25 3.42339 -0.344298
-8.75 3.42339 0.0246223
-8.25 3.42339 0.423643
-7.75 3.42339 0.769344
-7.25 3.42339 0.984475
-6.75 3.42339 1.01423
-6.25 3.42339 0.838178
-5.75 3.42339 0.475163
-5.25 3.42339 -0.0199632
-4.75 3.42339 -0.567213
-4.25 3.42339 -1.07767
-3.75 3.42339 -1.47163
-3.25 3.42339 -1.69472
-2.75 3.42339 -1.72865
-2.25 3.42339 -1.59414
-1.75 3.42339 -1.34548
-1.25 3.42339 -1.05792
-0.75 3.42339 -0.810535
-0.25 3.42339 -0.668503
0.25 3.42339 -0.668503
0.75 3.42339 -0.810535
1.25 3.42339 -1.05792
1.75 3.42339 -1.34548
2.25 3.42339 -1.59414
2.75 3.42339 -1.72865
3.25 3.42339 -1.69472
3.75 3.42339 -1.47163
4.25 3.42339 -1.07767
4.75 3.42339 -0.567213
5.25 3.42339 -0.0199632
5.75 3.42339 0.475163
6.25 3.42339 0.838178
6.75 3.42339 1.01423
7.25 3.42339 0.984475
7.75 3.42339 0.769344
8.25 3.42339 0.423643
8.75 3.42339 0.0246223
9.25 3.42339 -0.344298
-10 3.85641 -0.717814
-9.5 3.85641 -0.574791
-9 3.85641 -0.292893
-8.5 3.85641 0.077776
-8 3.85641 0.466063
-7.5 3.85641 0.793792
-7 3.85641 0.991485
-6.5 3.85641 1.01244
-6 3.85641 0.842118
-5.5 3.85641 0.500905
-5 3.85641 0.0395624
-4.5 3.85641 -0.471508
-4 3.85641 -0.956885
-3.5 3.85641 -1.35141
-3 3.85641 -1.61279
-2.5 3.85641 -1.72889
-2 3.85641 -1.71811
-1.5 3.85641 -1.62296
-1 3.85641 -1.49844
-0.5 3.85641 -1.39792
0 3.85641 -1.35977
0.5 3.85641 -1.39792
1 3.85641 -1.49844
1.5 3.85641 -1.62296
2 3.85641 -1.71811
2.5 3.85641 -1.72889
3 3.85641 -1.61279
3.5 3.85641 -1.35141
4 3.85641 -0.956885
4.5 3.85641 -0.471508
5 3.85641 0.0395624
5.5 3.85641 0.500905
6 3.85641 0.842118
6.5 3.85641 1.01244
7 3.85641 0.991485
7.5 3.85641 0.793792
8 3.85641 0.466063
8.5 3.85641 0.077776
9 3.85641 -0.292893
9.5 3.85641 -0.574791
-9.75 4.28942 -0.707109
-9.25 4.28942 -0.54697
-8.75 4.28942 -0.25828
-8.25 4.28942 0.108379
-7.75 4.28942 0.485028
-7.25 4.28942 0.799594
-6.75 4.28942 0.990001
-6.25 4.28942 1.0161
-5.75 4.28942 0.866925
-5.25 4.28942 0.561915
-4.75 4.28942 0.14584
-4.25 4.28942 -0.321149
-3.75 4.28942 -0.776146
-3.25 4.28942 -1.16592
-2.75 4.28942 -1.45641
-2.25 4.28942 -1.6374
-1.75 4.28942 -1.72138
-1.25 4.28942 -1.7373
-0.75 4.28942 -1.72077
-0.25 4.28942 -1.70333
0.25 4.28942 -1.70333
0.75 4.28942 -1.72077
1.25 4.28942 -1.7373
1.75 4.28942 -1.72138
2.25 4.28942 -1.6374
2.75 4.28942 -1.45641
3.25 4.28942 -1.16592
3.75 4.28942 -0.776146
4.25 4.28942 -0.321149
4.75 4.28942 0.14584
5.25 4.28942 0.561915
5.75 4.28942 0.866925
6.25 4.28942 1.0161
6.75 4.28942 0.990001
7.25 4.28942 0.799594
7.75 4.28942 0.485028
8.25 4.28942 0.108379
8.75 4.28942 -0.25828
9.25 4.28942 -0.54697
-10 4.72243 -0.721939
-9.5 4.72243 -0.698435
-9 4.72243 -0.530129
-8.5 4.72243 -0.242326
-8 4.72243 0.11584
-7.5 4.72243 0.480889
-7 4.72243 0.787231
-6.5 4.72243 0.979561
-6 4.72243 1.02283
-5.5 4.72243 0.907841
-5 4.72243 0.651416
-4.5 4.72243 0.291464
-4 4.72243 -0.121815
-3.5 4.72243 -0.536441
-3 4.72243 -0.908451
-2.5 4.72243 -1.20892
-2 4.72243 -1.42681
-1.5 4.72243 -1.5673
-1 4.72243 -1.64639
-0.5 4.72243 -1.68351
0 4.72243 -1.69396
0.5 4.72243 -1.68351
1 4.72243 -1.64639
1.5 4.72243 -1.5673
2 4.72243 -1.42681
2.5 4.72243 -1.20892
3 4.72243 -0.908451
3.5 4.72243 -0.536441
4 4.72243 -0.121815
4.5 4.72243 0.291464
5 4.72243 0.651416
5.5 4.72243 0.907841
6 4.72243 1.02283
6.5 4.72243 0.979561
7 4.72243 0.787231
7.5 4.72243 0.480889
8 4.72243 0.11584
8.5 4.72243 -0.242326
9 4.72243 -0.530129
9.5 4.72243 -0.698435
-9.75 5.15544 -0.724946
-9.25 5.15544 -0.694069
-8.75 5.15544 -0.525932
-8.25 5.15544 -0.245834
-7.75 5.15544 0.100036
-7.25 5.15544 0.453562
-6.75 5.15544 0.755702
-6.25 5.15544 0.957225
-5.75 5.15544 1.02699
-5.25 5.15544 0.956265
-4.75 5.15544 0.75839
-4.25 5.15544 0.464301
-3.75 5.15544 0.115102
-3.25 5.15544 -0.246411
-2.75 5.15544 -0.583357
-2.25 5.15544 -0.869894
-1.75 5.15544 -1.09303
-1.25 5.15544 -1.25107
-0.75 5.15544 -1.34958
-0.25 5.15544 -1.39623
0.25 5.15544 -1.39623
0.75 5.15544 -1.34958
1.25 5.15544 -1.25107
1.75 5.15544 -1.09303
2.25 5.15544 -0.869894
2.75 5.15544 -0.583357
3.25 5.15544 -0.246411
3.75 5.15544 0.115102
4.25 5.15544 0.464301
4.75 5.15544 0.75839
5.25 5.15544 0.956265
5.75 5.15544 1.02699
6.25 5.15544 0.957225
6.75 5.15544 0.755702
7.25 5.15544 0.453562
7.75 5.15544 0.100036
8.25 5.15544 -0.245834
8.75 5.15544 -0.525932
9.25 5.15544 -0.694069
-10 5.58846 -0.625748
-9.5 5.58846 -0.725582
-9 5.58846 -0.695049
-8.5 5.58846 -0.53478
-8 5.58846 -0.26863
-7.5 5.58846 0.061239
-7 5.58846 0.402587
-6.5 5.58846 0.702789
-6 5.58846 0.918033
-5.5 5.58846 1.0202
-5 5.58846 1.00023
-4.5 5.58846 0.867702
-4 5.58846 0.646948
-3.5 5.58846 0.371046
-3 5.58846 0.0751193
-2.5 5.58846 -0.209508
-2 5.58846 -0.459156
-1.5 5.58846 -0.659108
-1 5.58846 -0.802582
-0.5 5.58846 -0.888104
0 5.58846 -0.916427
0.5 5.58846 -0.888104
1 5.58846 -0.802582
1.5 5.58846 -0.659108
2 5.58846 -0.459156
2.5 5.58846 -0.209508
3 5.58846 0.0751193
3.5 5.58846 0.371046
4 5.58846 0.646948
4.5 5.58846 0.867702
5 5.58846 1.00023
5.5 5.58846 1.0202
6 5.58846 0.918033
6.5 5.58846 0.702789
7 5.58846 0.402587
7.5 5.58846 0.061239
8 5.58846 -0.26863
8.5 5.58846 -0.53478
9 5.58846 -0.695049
9.5 5.58846 -0.725582
-9.75 6.02147 -0.624315
-9.25 6.02147 -0.72419
-8.75 6.02147 -0.701146
-8.25 6.02147 -0.55582
-7.75 6.02147 -0.309549
-7.25 6.02147 0.000264187
-6.75 6.02147 0.327479
-6.25 6.02147 0.62565
-5.75 6.02147 0.855834
-5.25 6.02147 0.99232
-4.75 6.02147 1.02539
-4.25 6.02147 0.960907
-3.75 6.02147 0.817223
-3.25 6.02147 0.620416
-2.75 6.02147 0.399063
-2.25 6.02147 0.179732
-1.75 6.02147 -0.0160391
-1.25 6.02147 -0.172942
-0.75 6.02147 -0.281518
-0.25 6.02147 -0.336803
0.25 6.02147 -0.336803
0.75 6.02147 -0.281518
1.25 6.02147 -0.172942
1.75 6.02147 -0.0160391
2.25 6.02147 0.179732
2.75 6.02147 0.399063
3.25 6.02147 0.620416
3.75 6.02147 0.817223
4.25 6.02147 0.960907
4.75 6.02147 1.02539
5.25 6.02147 0.99232
5.75 6.02147 0.855834
6.25 6.02147 0.62565
6.75 6.02147 0.327479
7.25 6.02147 0.000264187
7.75 6.02147 -0.309549
8.25 6.02147 -0.55582
8.75 6.02147 -0.701146
9.25 6.02147 -0.72419
-10 6.45448 -0.414362
-9.5 6.45448 -0.614701
-9 6.45448 -0.720044
-8.5 6.45448 -0.710874
-8 6.45448 -0.58693
-7.5 6.45448 -0.36629
-7 6.45448 -0.0811997
-6.5 6.45448 0.22833
-6 6.45448 0.521735
-5.5 6.45448 0.764499
-5 6.45448 0.932958
-4.5 6.45448 1.01663
-4 6.45448 1.01798
-3.5 6.45448 0.950053
-3 6.45448 0.832762
-2.5 6.45448 0.688877
-2 6.45448 0.540458
-1.5 6.45448 0.406368
-1 6.45448 0.301015
-0.5 6.45448 0.234152
0 6.45448 0.211278
0.5 6.45448 0.234152
1 6.45448 0.301015
1.5 6.45448 0.406368
2 6.45448 0.540458
2.5 6.45448 0.688877
3 6.45448 0.832762
3.5 6.45448 0.950053
4 6.45448 1.01798
4.5 6.45448 1.01663
5 6.45448 0.932958
5.5 6.45448 0.764499
6 6.45448 0.521735
6.5 6.45448 0.22833
7 6.45448 -0.0811997
7.5 6.45448 -0.36629
8 6.45448 -0.58693
8.5 6.45448 -0.710874
9 6.45448 -0.720044
9.5 6.45448 -0.614701
-9.75 6.8875 -0.3943
-9.25 6.8875 -0.596052
-8.75 6.8875 -0.711396
-8.25 6.8875 -0.721525
-7.75 6.8875 -0.624667
-7.25 6.8875 -0.43522
-6.75 6.8875 -0.180125
-6.25 6.8875 0.106588
-5.75 6.8875 0.389916
-5.25 6.8875 0.639417
-4.75 6.8875 0.833275
-4.25 6.8875 0.960331
-3.75 6.8875 1.02005
-3.25 6.8875 1.02079
-2.75 6.8875 0.976992
-2.25 6.8875 0.906058
-1.75 6.8875 0.825511
-1.25 6.8875 0.750846
-0.75 6.8875 0.694225
-0.25 6.8875 0.663863
0.25 6.8875 0.663863
0.75 6.8875 0.694225
1.25 6.8875 0.750846
1.75 6.8875 0.825511
2.25 6.8875 0.906058
2.75 6.8875 0.976992
3.25 6.8875 1.02079
3.75 6.8875 1.02005
4.25 6.8875 0.960331
4.75 6.8875 0.833275
5.25 6.8875 0.639417
5.75 6.8875 0.389916
6.25 6.8875 0.106588
6.75 6.8875 -0.180125
7.25 6.8875 -0.43522
7.75 6.8875 -0.624667
8.25 6.8875 -0.721525
8.75 6.8875 -0.711396
9.25 6.8875 -0.596052
-10 7.32051 -0.111268
-9.5 7.32051 -0.361664
-9 7.32051 -0.566901
-8.5 7.32051 -0.695608
-8 7.32051 -0.729272
-7.5 7.32051 -0.66427
-7 7.32051 -0.511171
-6.5 7.32051 -0.291694
-6 7.32051 -0.0341466
-5.5 7.32051 0.231671
-5 7.32051 0.479112
-4.5 7.32051 0.688116
-4 7.32051 0.847024
-3.5 7.32051 0.952743
-3 7.32051 1.00954
-2.5 7.32051 1.02694
-2 7.32051 1.01734
-1.5 7.32051 0.993659
-1 7.32051 0.967561
-0.5 7.32051 0.9481
0 7.32051 0.940968
0.5 7.32051 0.9481
1 7.32051 0.967561
1.5 7.32051 0.993659
2 7.32051 1.01734
2.5 7.32051 1.02694
3 7.32051 1.00954
3.5 7.32051 0.952743
4 7.32051 0.847024
4.5 7.32051 0.688116
5 7.32051 0.479112
5.5 7.32051 0.231671
6 7.32051 -0.0341466
6.5 7.32051 -0.291694
7 7.32051 -0.511171
7.5 7.32051 -0.66427
8 7.32051 -0.729272
8.5 7.32051 -0.695608
9 7.32051 -0.566901
9.5 7.32051 -0.361664
-9.75 7.75352 -0.0700279
-9.25 7.75352 -0.315784
-8.75 7.75352 -0.52538
-8.25 7.75352 -0.669379
-7.75 7.75352 -0.729355
-7.25 7.75352 -0.699741
-6.75 7.75352 -0.587354
-6.25 7.75352 -0.408945
-5.75 7.75352 -0.187469
-5.25 7.75352 0.0521178
-4.75 7.75352 0.286717
-4.25 7.75352 0.498001
-3.75 7.75352 0.674051
-3.25 7.75352 0.809679
-2.75 7.75352 0.905648
-2.25 7.75352 0.967155
-1.75 7.75352 1.00197
-1.25 7.75352 1.01864
-0.75 7.75352 1.02488
-0.25 7.75352 1.02646
0.25 7.75352 1.02646
0.75 7.75352 1.02488
1.25 7.75352 1.01864
1.75 7.75352 1.00197
2.25 7.75352 0.967155
2.75 7.75352 0.905648
3.25 7.75352 0.809679
3.75 7.75352 0.674051
4.25 7.75352 0.498001
4.75 7.75352 0.286717
5.25 7.75352 0.0521178
5.75 7.75352 -0.187469
6.25 7.75352 -0.408945
6.75 7.75352 -0.587354
7.25 7.75352 -0.699741
7.75 7.75352 -0.729355
8.25 7.75352 -0.669379
8.75 7.75352 -0.52538
9.25 7.75352 -0.315784
-10 8.18653 0.216457
-9.5 8.18653 -0.0163701
-9 8.18653 -0.256095
-8.5 8.18653 -0.46953
-8 8.18653 -0.629092
-7.5 8.18653 -0.716419
-7 8.18653 -0.724107
-6.5 8.18653 -0.655481
-6 8.18653 -0.522715
-5.5 8.18653 -0.343844
-5 8.18653 -0.13936
-4.5 8.18653 0.0709744
-4 8.18653 0.27059
-3.5 8.18653 0.447594
-3 8.18653 0.59521
-2.5 8.18653 0.711342
-2 8.18653 0.797511
-1.5 8.18653 0.857492
-1 8.18653 0.895907
-0.5 8.18653 0.916993
0 8.18653 0.923676
0.5 8.18653 0.916993
1 8.18653 0.895907
1.5 8.18653 0.857492
2 8.18653 0.797511
2.5 8.18653 0.711342
3 8.18653 0.59521
3.5 8.18653 0.447594
4 8.18653 0.27059
4.5 8.18653 0.0709744
5 8.18653 -0.13936
5.5 8.18653 -0.343844
6 8.18653 -0.522715
6.5 8.18653 -0.655481
7 8.18653 -0.724107
7.5 8.18653 -0.716419
8 8.18653 -0.629092
8.5 8.18653 -0.46953
9 8.18653 -0.256095
9.5 8.18653 -0.0163701
-9.75 8.61954 0.265964
-9.25 8.61954 0.0487779
-8.75 8.61954 -0.182441
-8.25 8.61954 -0.397692
-7.75 8.61954 -0.571269
-7.25 8.61954 -0.685
-6.75 8.61954 -0.7299
-6.25 8.61954 -0.706201
-5.75 8.61954 -0.621979
-5.25 8.61954 -0.490833
-4.75 8.61954 -0.329169
-4.25 8.61954 -0.1536
-3.75 8.61954 0.0211291
-3.25 8.61954 0.183481
-2.75 8.61954 0.325655
-2.25 8.61954 0.443412
-1.75 8.61954 0.535409
-1.25 8.61954 0.602242
-0.75 8.61954 0.645434
-0.25 8.61954 0.666554
0.25 8.61954 0.666554
0.75 8.61954 0.645434
1.25 8.61954 0.602242
1.75 8.61954 0.535409
2.25 8.61954 0.443412
2.75 8.61954 0.325655
3.25 8.61954 0.183481
3.75 8.61954 0.0211291
4.25 8.61954 -0.1536
4.75 8.61954 -0.329169
5.25 8.61954 -0.490833
5.75 8.61954 -0.621979
6.25 8.61954 -0.706201
6.75 8.61954 -0.7299
7.25 8.61954 -0.685
7.75 8.61954 -0.571269
8.25 8.61954 -0.397692
8.75 8.61954 -0.182441
9.25 8.61954 0.0487779
-10 9.05256 0.472743
-9.5 9.05256 0.321808
-9 9.05256 0.123751
-8.5 9.05256 -0.0954394
-8 9.05256 -0.308983
-7.5 9.05256 -0.493157
-7 9.05256 -0.630196
-6.5 9.05256 -0.709905
-6 9.05256 -0.729902
-5.5 9.05256 -0.6947
-5 9.05256 -0.613967
-4.5 9.05256 -0.500397
-4 9.05256 -0.367618
-3.5 9.05256 -0.228447
-3 9.05256 -0.0936983
-2.5 9.05256 0.0284089
-2 9.05256 0.132296
-1.5 9.05256 0.214672
-1 9.05256 0.273937
-0.5 9.05256 0.309537
0 9.05256 0.321398
0.5 9.05256 0.309537
1 9.05256 0.273937
1.5 9.05256 0.214672
2 9.05256 0.132296
2.5 9.05256 0.0284089
3 9.05256 -0.0936983
3.5 9.05256 -0.228447
4 9.05256 -0.367618
4.5 9.05256 -0.500397
5 9.05256 -0.613967
5.5 9.05256 -0.6947
6 9.05256 -0.729902
6.5 9.05256 -0.709905
7 9.05256 -0.630196
7.5 9.05256 -0.493157
8 9.05256 -0.308983
8.5 9.05256 -0.0954394
9 9.05256 0.123751
9.5 9.05256 0.321808
-9.75 9.48557 0.506149
-9.25 9.48557 0.380953
-8.75 9.48557 0.205921
-8.25 9.48557 0.00316118
-7.75 9.48557 -0.203803
-7.25 9.48557 -0.393373
-6.75 9.48557 -0.548478
-6.25 9.48557 -0.658128
-5.75 9.48557 -0.717853
-5.25 9.48557 -0.729165
-4.75 9.48557 -0.698303
-4.25 9.48557 -0.634615
-3.75 9.48557 -0.548885
-3.25 9.48557 -0.451893
-2.75 9.48557 -0.353343
-2.25 9.48557 -0.261247
-1.75 9.48557 -0.181703
-1.25 9.48557 -0.118998
-0.75 9.48557 -0.0758984
-0.25 9.48557 -0.0539937
0.25 9.48557 -0.0539937
0.75 9.48557 -0.0758984
1.25 9.48557 -0.118998
1.75 9.48557 -0.181703
2.25 9.48557 -0.261247
2.75 9.48557 -0.353343
3.25 9.48557 -0.451893
3.75 9.48557 -0.548885
4.25 9.48557 -0.634615
4.75 9.48557 -0.698303
5.25 9.48557 -0.729165
5.75 9.48557 -0.717853
6.25 9.48557 -0.658128
6.75 9.48557 -0.548478
7.25 9.48557 -0.393373
7.75 9.48557 -0.203803
8.25 9.48557 0.00316118
8.75 9.48557 0.205921
9.25 9.48557 0.380953
-10 9.91858 0.567211
-9.5 9.91858 0.535831
-9 9.91858 0.439506
-8.5 9.91858 0.291525
-8 9.91858 0.110174
-7.5 9.91858 -0.0842978
-7 9.91858 -0.272566
-6.5 9.91858 -0.438551
-6 9.91858 -0.570907
-5.5 9.91858 -0.663606
-5 9.91858 -0.715716
-4.5 9.91858 -0.730545
-4 9.91858 -0.714443
-3.5 9.91858 -0.675499
-3 9.91858 -0.622349
-2.5 9.91858 -0.563234
-2 9.91858 -0.505374
-1.5 9.91858 -0.454628
-1 9.91858 -0.415404
-0.5 9.91858 -0.390715
0 9.91858 -0.382297
0.5 9.91858 -0.390715
1 9.91858 -0.415404
1.5 9.91858 -0.454628
2 9.91858 -0.505374
2.5 9.91858 -0.563234
3 9.91858 -0.622349
3.5 9.91858 -0.675499
4 9.91858 -0.714443
4.5 9.91858 -0.730545
5 9.91858 -0.715716
5.5 9.91858 -0.663606
6 9.91858 -0.570907
6.5 9.91858 -0.438551
7 9.91858 -0.272566
7.5 9.91858 -0.0842978
8 9.91858 0.110174
8.5 9.91858 0.291525
9 9.91858 0.439506
9.5 9.91858 0.535831
